ply
format ascii 1.0
element vertex 2071
property float32 x
property float32 y
property float32 z
end_header
-2.8008 13.7202 2.6532
-3.8480 13.7290 2.7011
-5.6888 15.8216 3.1841
-6.7995 15.3469 3.1771
-7.8700 14.7919 3.1690
-8.8946 14.1602 3.1598
-9.8675 13.4559 3.1494
-10.7838 12.6834 3.1381
-11.6434 11.8522 3.1271
-12.4400 10.9637 3.1158
-13.1768 10.0281 3.1057
-13.8485 9.0465 3.0964
-14.4468 8.0202 3.0865
-14.9625 6.9516 3.0748
-15.3994 5.8506 3.0628
-15.7420 4.7187 3.0478
-15.9978 3.5671 3.0319
-16.1720 2.4037 3.0162
-16.2867 1.2357 3.0048
-16.3217 0.0637 2.9942
-16.2732 -1.1069 2.9836
-16.1417 -2.2702 2.9731
-15.9345 -3.4217 2.9639
-15.6498 -4.5565 2.9556
-15.2985 -5.6731 2.9500
-14.8835 -6.7699 2.9477
-14.3899 -7.8364 2.9455
-13.8199 -8.8667 2.9435
-13.1760 -9.8552 2.9417
-12.4610 -10.7967 2.9400
-11.6784 -11.6857 2.9385
-10.8272 -12.5119 2.9359
-9.9037 -13.2575 2.9296
-8.9373 -13.9477 2.9263
-7.9260 -14.5733 2.9247
-6.8703 -15.1239 2.9233
-5.7759 -15.5964 2.9220
-4.6485 -15.9878 2.9210
-3.4943 -16.2956 2.9201
-2.3196 -16.5181 2.9194
-1.1309 -16.6537 2.9190
0.0654 -16.7015 2.9188
1.2624 -16.6611 2.9187
2.4536 -16.5326 2.9189
3.6324 -16.3167 2.9193
4.7922 -16.0144 2.9199
5.9264 -15.6276 2.9207
7.0156 -15.1298 2.9162
8.0727 -14.5719 2.9155
9.0864 -13.9412 2.9155
10.0494 -13.2376 2.9155
10.9563 -12.4654 2.9155
11.8021 -11.6291 2.9155
12.5824 -10.7340 2.9155
13.2931 -9.7852 2.9155
13.9306 -8.7886 2.9155
14.4918 -7.7498 2.9155
14.2020 -6.3308 2.7651
14.5972 -5.2883 2.7679
15.0163 -4.2501 2.7896
15.3405 -3.1745 2.8078
15.5646 -2.0711 2.8221
11.0696 -0.6707 1.9989
11.4298 0.1288 2.0662
11.4274 0.9513 2.0788
14.0483 2.1930 2.5852
11.5033 2.6529 2.1527
11.5008 3.5383 2.2006
11.4982 4.4634 2.2622
11.6008 5.4912 2.3607
11.4924 6.4878 2.4341
11.4892 7.6224 2.5499
11.4945 8.8769 2.6929
11.9998 10.7270 2.9920
11.2152 11.5778 3.0036
10.3689 12.3697 3.0144
9.4652 13.0979 3.0245
8.5091 13.7581 3.0337
7.5057 14.3463 3.0420
6.3883 14.6926 3.0151
5.3197 15.1223 3.0214
4.4511 16.3130 3.1913
3.2683 16.5930 3.1954
2.0678 16.7836 3.1982
0.8566 16.8837 3.1996
-0.3583 16.8928 3.1998
-1.5697 16.8111 3.1986
-2.7707 16.6391 3.1961
-3.3136 13.7245 2.6750
-4.3810 13.7334 2.7305
-6.2423 15.5972 3.1808
-7.3339 15.0824 3.1733
-8.3824 14.4891 3.1646
-9.3822 13.8210 3.1548
-10.3277 13.0824 3.1440
-11.2158 12.2795 3.1326
-12.0454 11.4202 3.1216
-12.8102 10.5057 3.1103
-13.5177 9.5489 3.1012
-14.1535 8.5446 3.0915
-14.7113 7.4966 3.0807
-15.1884 6.4112 3.0689
-15.5817 5.2949 3.0559
-15.8785 4.1515 3.0399
-16.0941 2.9933 3.0241
-16.2371 1.8271 3.0102
-16.3144 0.6567 2.9996
-16.3082 -0.5153 2.9890
-16.2186 -1.6830 2.9784
-16.0468 -2.8407 2.9680
-15.8044 -3.9852 2.9599
-15.4780 -5.1086 2.9512
-15.1033 -6.2186 2.9489
-14.6493 -7.3011 2.9466
-14.1176 -8.3504 2.9445
-13.5108 -9.3608 2.9426
-12.8313 -10.3267 2.9408
-12.0825 -11.2429 2.9392
-11.2662 -12.1024 2.9374
-10.3776 -12.8887 2.9327
-9.4296 -13.6032 2.9271
-8.4434 -14.2660 2.9255
-7.4095 -14.8550 2.9240
-6.3339 -15.3674 2.9226
-5.2225 -15.8001 2.9215
-4.0811 -16.1505 2.9205
-2.9160 -16.4164 2.9198
-1.7335 -16.5961 2.9192
-0.5402 -16.6884 2.9188
0.6572 -16.6926 2.9187
1.8522 -16.6086 2.9188
3.0381 -16.4368 2.9191
4.2083 -16.1780 2.9196
5.3563 -15.8337 2.9203
6.4693 -15.3908 2.9183
7.5425 -14.8623 2.9155
8.5796 -14.2696 2.9155
9.5690 -13.6024 2.9155
10.5049 -12.8643 2.9155
11.3822 -12.0598 2.9155
12.1962 -11.1938 2.9155
12.9426 -10.2715 2.9155
13.6175 -9.2983 2.9155
14.2177 -8.2801 2.9155
13.9732 -6.8469 2.7638
14.4068 -5.8191 2.7665
14.7836 -4.7701 2.7730
15.1974 -3.7248 2.8006
15.4610 -2.6316 2.8148
10.5351 -1.0232 1.9051
11.4310 -0.2863 2.0639
11.4286 0.5346 2.0711
11.4263 1.3608 2.0891
11.4072 2.1978 2.1153
11.5021 3.0862 2.1748
11.4995 3.9897 2.2292
12.9372 5.5580 2.5862
11.1920 5.7925 2.3211
11.4908 7.0361 2.4885
11.4875 8.2230 2.6161
11.4837 9.5381 2.7715
11.6201 11.1545 2.9978
10.8044 11.9768 3.0090
9.9291 12.7378 3.0195
8.9989 13.4329 3.0292
8.0188 14.0580 3.0379
6.9662 14.5508 3.0335
5.8643 14.9149 3.0184
4.7802 15.3049 3.0241
3.8692 16.4625 3.1935
2.6768 16.6984 3.1969
1.4702 16.8444 3.1991
0.2562 16.8996 3.1999
-0.9578 16.8637 3.1994
-2.1649 16.7373 3.1975
-2.7888 13.7201 2.6528
-3.8355 13.7289 2.7005
-5.6757 15.8266 3.1842
-6.7868 15.3529 3.1772
-7.8578 14.7988 3.1691
-8.8829 14.1680 3.1599
-9.8565 13.4645 3.1496
-10.7735 12.6928 3.1383
-11.6338 11.8622 3.1273
-12.4311 10.9744 3.1159
-13.1686 10.0392 3.1058
-13.8410 9.0582 3.0965
-14.4402 8.0324 3.0866
-14.9569 6.9643 3.0749
-15.3948 5.8635 3.0629
-15.7385 4.7320 3.0480
-15.9953 3.5806 3.0321
-16.1704 2.4173 3.0163
-16.2858 1.2493 3.0050
-16.3218 0.0773 2.9944
-16.2743 -1.0933 2.9837
-16.1437 -2.2567 2.9732
-15.9374 -3.4084 2.9640
-15.6536 -4.5434 2.9557
-15.3029 -5.6602 2.9501
-14.8888 -6.7574 2.9477
-14.3961 -7.8241 2.9456
-13.8270 -8.8549 2.9435
-13.1839 -9.8440 2.9417
-12.4697 -10.7860 2.9400
-11.6879 -11.6757 2.9385
-10.8376 -12.5029 2.9360
-9.9148 -13.2492 2.9296
-8.9487 -13.9400 2.9263
-7.9380 -14.5664 2.9247
-6.8828 -15.1180 2.9233
-5.7888 -15.5913 2.9220
-4.6617 -15.9837 2.9210
-3.5078 -16.2926 2.9201
-2.3334 -16.5160 2.9194
-1.1447 -16.6526 2.9190
0.0514 -16.7015 2.9188
1.2485 -16.6621 2.9187
2.4399 -16.5346 2.9189
3.6188 -16.3197 2.9193
4.7788 -16.0184 2.9199
5.9134 -15.6326 2.9207
7.0031 -15.1358 2.9162
8.0606 -14.5788 2.9155
9.0749 -13.9490 2.9155
10.0385 -13.2462 2.9155
10.9461 -12.4747 2.9155
11.7927 -11.6392 2.9155
12.5737 -10.7447 2.9155
13.2853 -9.7966 2.9155
13.9236 -8.8004 2.9155
14.4857 -7.7621 2.9155
14.1969 -6.3428 2.7651
14.5930 -5.3006 2.7679
15.0111 -4.2622 2.7892
15.3374 -3.1873 2.8076
15.5625 -2.0841 2.8219
11.0567 -0.6792 1.9966
11.4298 0.1193 2.0661
11.4275 0.9417 2.0786
14.0558 2.1821 2.5862
11.5034 2.6428 2.1523
11.5008 3.5278 2.2000
11.4982 4.4524 2.2614
11.6106 5.4840 2.3617
11.4924 6.4752 2.4329
11.4892 7.6086 2.5484
11.5047 8.8695 2.6935
12.0085 10.7168 2.9918
11.2247 11.5683 3.0034
10.3790 12.3608 3.0143
9.4760 13.0898 3.0244
8.5205 13.7508 3.0336
7.5176 14.3399 3.0419
6.4006 14.6872 3.0150
5.3323 15.1178 3.0214
4.4647 16.3093 3.1912
3.2822 16.5902 3.1953
2.0819 16.7819 3.1982
0.8707 16.8830 3.1996
-0.3441 16.8932 3.1998
-1.5557 16.8125 3.1986
-2.7568 16.6416 3.1961
-3.3014 13.7244 2.6745
-4.3683 13.7333 2.7298
-6.2294 15.6027 3.1809
-7.3215 15.0889 3.1734
-8.3705 14.4964 3.1647
-9.3708 13.8292 3.1549
-10.3171 13.0914 3.1441
-11.2057 12.2892 3.1327
-12.0361 11.4305 3.1217
-12.8015 10.5166 3.1104
-13.5099 9.5604 3.1013
-14.1465 8.5565 3.0916
-14.7053 7.5090 3.0809
-15.1833 6.4240 3.0690
-15.5778 5.3081 3.0561
-15.8756 4.1649 3.0401
-16.0921 3.0068 3.0243
-16.2357 1.8407 3.0103
-16.3140 0.6703 2.9997
-16.3087 -0.5017 2.9891
-16.2201 -1.6695 2.9785
-16.0492 -2.8273 2.9681
-15.8077 -3.9720 2.9600
-15.4819 -5.0956 2.9513
-15.1081 -6.2058 2.9489
-14.6550 -7.2887 2.9466
-14.1242 -8.3384 2.9445
-13.5182 -9.3492 2.9426
-12.8397 -10.3157 2.9408
-12.0916 -11.2325 2.9392
-11.2761 -12.0928 2.9374
-10.3883 -12.8800 2.9328
-9.4408 -13.5950 2.9271
-8.4552 -14.2587 2.9255
-7.4218 -14.8486 2.9240
-6.3467 -15.3618 2.9227
-5.2356 -15.7955 2.9215
-4.0945 -16.1469 2.9205
-2.9296 -16.4138 2.9198
-1.7473 -16.5945 2.9192
-0.5542 -16.6878 2.9188
0.6433 -16.6931 2.9187
1.8384 -16.6101 2.9188
3.0244 -16.4393 2.9191
4.1948 -16.1815 2.9196
5.3431 -15.8382 2.9203
6.4565 -15.3965 2.9184
7.5302 -14.8687 2.9155
8.5678 -14.2769 2.9155
9.5578 -13.6105 2.9155
10.4943 -12.8733 2.9155
11.3724 -12.0695 2.9155
12.1871 -11.2042 2.9155
12.9343 -10.2825 2.9155
13.6101 -9.3099 2.9155
14.2110 -8.2922 2.9155
13.9677 -6.8587 2.7637
14.4022 -5.8312 2.7665
14.7776 -4.7818 2.7725
15.1939 -3.7374 2.8004
15.4584 -2.6444 2.8146
10.5234 -1.0309 1.9030
11.4310 -0.2959 2.0639
11.4287 0.5251 2.0710
11.4263 1.3511 2.0889
11.4177 2.1899 2.1168
11.5021 3.0759 2.1742
11.4996 3.9790 2.2285
12.9423 5.5474 2.5862
11.2015 5.7856 2.3220
11.4909 7.0229 2.4872
11.4875 8.2085 2.6145
11.4838 9.5220 2.7695
11.6292 11.1446 2.9977
10.8143 11.9676 3.0089
9.9396 12.7293 3.0194
9.0100 13.4252 3.0290
8.0305 14.0511 3.0378
6.9976 14.5852 3.0418
5.8767 14.9099 3.0183
4.7930 15.3008 3.0240
3.8830 16.4592 3.1934
2.6908 16.6962 3.1969
1.4843 16.8432 3.1991
0.2704 16.8995 3.1999
-0.9437 16.8647 3.1994
-2.1510 16.7393 3.1975
-2.7768 13.7200 2.6523
-3.8231 13.7288 2.6998
-5.6625 15.8316 3.1842
-6.7741 15.3588 3.1773
-7.8456 14.8057 3.1692
-8.8713 14.1758 3.1600
-9.8455 13.4731 3.1497
-10.7632 12.7021 3.1384
-11.6241 11.8722 3.1274
-12.4222 10.9850 3.1160
-13.1603 10.0503 3.1059
-13.8336 9.0699 3.0966
-14.4337 8.0445 3.0867
-14.9514 6.9769 3.0751
-15.3901 5.8765 3.0630
-15.7351 4.7453 3.0482
-15.9927 3.5941 3.0322
-16.1689 2.4309 3.0165
-16.2849 1.2629 3.0051
-16.3218 0.0909 2.9945
-16.2753 -1.0797 2.9839
-16.1457 -2.2432 2.9733
-15.9402 -3.3951 2.9641
-15.6574 -4.5304 2.9558
-15.3072 -5.6473 2.9501
-14.8940 -6.7448 2.9478
-14.4023 -7.8120 2.9456
-13.8340 -8.8431 2.9436
-13.1918 -9.8327 2.9417
-12.4785 -10.7753 2.9400
-11.6974 -11.6657 2.9385
-10.8481 -12.4938 2.9360
-9.9258 -13.2409 2.9297
-8.9603 -13.9323 2.9264
-7.9501 -14.5595 2.9248
-6.8954 -15.1120 2.9233
-5.8017 -15.5863 2.9221
-4.6751 -15.9796 2.9210
-3.5214 -16.2895 2.9201
-2.3471 -16.5139 2.9195
-1.1587 -16.6516 2.9190
0.0375 -16.7014 2.9188
1.2346 -16.6631 2.9187
2.4260 -16.5366 2.9189
3.6052 -16.3227 2.9193
4.7654 -16.0224 2.9199
5.9003 -15.6375 2.9207
6.9905 -15.1419 2.9163
8.0485 -14.5857 2.9155
9.0634 -13.9567 2.9155
10.0276 -13.2548 2.9155
10.9359 -12.4841 2.9155
11.7832 -11.6493 2.9155
12.5650 -10.7554 2.9155
13.2774 -9.8079 2.9155
13.9166 -8.8123 2.9155
14.4796 -7.7744 2.9155
14.1919 -6.3547 2.7651
14.5888 -5.3129 2.7678
15.0060 -4.2743 2.7888
15.3343 -3.2000 2.8074
15.5603 -2.0970 2.8218
11.0439 -0.6876 1.9943
11.4298 0.1097 2.0660
11.4275 0.9321 2.0784
14.0581 2.1705 2.5862
11.5034 2.6327 2.1518
11.5009 3.5173 2.1994
11.4982 4.4413 2.2606
11.6204 5.4768 2.3627
11.4925 6.4625 2.4317
11.4893 7.5948 2.5469
11.5149 8.8620 2.6941
12.0173 10.7065 2.9917
11.2342 11.5587 3.0033
10.3892 12.3520 3.0142
9.4868 13.0817 3.0243
8.5319 13.7435 3.0335
7.5296 14.3335 3.0418
6.4128 14.6817 3.0150
5.3449 15.1132 3.0213
4.4783 16.3055 3.1912
3.2961 16.5875 3.1953
2.0959 16.7801 3.1981
0.8849 16.8824 3.1996
-0.3300 16.8936 3.1998
-1.5416 16.8140 3.1986
-2.7429 16.6441 3.1961
-3.2892 13.7243 2.6739
-4.3556 13.7332 2.7290
-6.2165 15.6082 3.1810
-7.3090 15.0953 3.1735
-8.3586 14.5037 3.1648
-9.3595 13.8373 3.1550
-10.3064 13.1003 3.1442
-11.1957 12.2988 3.1328
-12.0268 11.4408 3.1219
-12.7929 10.5274 3.1105
-13.5020 9.5718 3.1014
-14.1395 8.5685 3.0918
-14.6993 7.5214 3.0810
-15.1782 6.4368 3.0692
-15.5738 5.3212 3.0563
-15.8726 4.1783 3.0403
-16.0900 3.0203 3.0244
-16.2343 1.8543 3.0105
-16.3136 0.6839 2.9998
-16.3093 -0.4881 2.9892
-16.2216 -1.6560 2.9787
-16.0515 -2.8138 2.9682
-15.8110 -3.9588 2.9600
-15.4857 -5.0825 2.9513
-15.1129 -6.1931 2.9489
-14.6607 -7.2763 2.9467
-14.1309 -8.3264 2.9446
-13.5257 -9.3377 2.9426
-12.8480 -10.3048 2.9408
-12.1007 -11.2222 2.9392
-11.2860 -12.0831 2.9374
-10.3991 -12.8713 2.9329
-9.4519 -13.5867 2.9271
-8.4669 -14.2514 2.9255
-7.4341 -14.8421 2.9240
-6.3594 -15.3563 2.9227
-5.2487 -15.7909 2.9215
-4.1079 -16.1433 2.9205
-2.9433 -16.4112 2.9198
-1.7612 -16.5929 2.9192
-0.5681 -16.6872 2.9189
0.6293 -16.6935 2.9187
1.8245 -16.6116 2.9188
3.0107 -16.4418 2.9191
4.1813 -16.1850 2.9196
5.3298 -15.8427 2.9203
6.4438 -15.4021 2.9184
7.5178 -14.8752 2.9155
8.5560 -14.2842 2.9155
9.5466 -13.6187 2.9155
10.4838 -12.8823 2.9155
11.3625 -12.0793 2.9155
12.1780 -11.2146 2.9155
12.9260 -10.2935 2.9155
13.6026 -9.3215 2.9155
14.2046 -8.3043 2.9155
13.9622 -6.8705 2.7637
14.3976 -5.8433 2.7664
14.7717 -4.7935 2.7721
15.1904 -3.7500 2.8003
15.4558 -2.6573 2.8145
10.5117 -1.0386 1.9010
11.4310 -0.3054 2.0639
11.4287 0.5155 2.0708
11.4263 1.3415 2.0886
11.4282 2.1821 2.1183
11.5022 3.0656 2.1737
11.4996 3.9683 2.2278
12.9473 5.5367 2.5862
11.2109 5.7786 2.3229
11.4909 7.0097 2.4858
11.4875 8.1941 2.6128
11.4838 9.5058 2.7675
11.6383 11.1347 2.9975
10.8241 11.9584 3.0088
9.9501 12.7208 3.0193
9.0211 13.4175 3.0289
8.0421 14.0443 3.0377
7.0185 14.5974 3.0455
5.8892 14.9049 3.0182
4.8058 15.2967 3.0240
3.8967 16.4559 3.1934
2.7048 16.6940 3.1969
1.4983 16.8420 3.1990
0.2845 16.8993 3.1999
-0.9296 16.8656 3.1994
-2.1370 16.7413 3.1976
-2.7649 13.7199 2.6518
-3.8107 13.7287 2.6992
-5.6494 15.8366 3.1843
-6.7614 15.3648 3.1774
-7.8334 14.8126 3.1693
-8.8596 14.1835 3.1601
-9.8345 13.4817 3.1498
-10.7529 12.7115 3.1385
-11.6145 11.8822 3.1275
-12.4133 10.9957 3.1162
-13.1521 10.0614 3.1061
-13.8262 9.0816 3.0967
-14.4272 8.0567 3.0868
-14.9458 6.9895 3.0752
-15.3855 5.8895 3.0632
-15.7316 4.7586 3.0484
-15.9902 3.6076 3.0324
-16.1673 2.4444 3.0167
-16.2839 1.2765 3.0052
-16.3219 0.1046 2.9946
-16.2763 -1.0661 2.9840
-16.1477 -2.2298 2.9735
-15.9430 -3.3818 2.9642
-15.6612 -4.5173 2.9559
-15.3115 -5.6344 2.9501
-14.8993 -6.7322 2.9478
-14.4084 -7.7997 2.9456
-13.8410 -8.8314 2.9436
-13.1997 -9.8215 2.9417
-12.4871 -10.7647 2.9400
-11.7068 -11.6557 2.9385
-10.8584 -12.4846 2.9361
-9.9368 -13.2326 2.9298
-8.9717 -13.9246 2.9264
-7.9621 -14.5527 2.9248
-6.9078 -15.1060 2.9233
-5.8146 -15.5812 2.9221
-4.6883 -15.9755 2.9210
-3.5349 -16.2863 2.9201
-2.3609 -16.5118 2.9195
-1.1725 -16.6505 2.9190
0.0236 -16.7013 2.9188
1.2207 -16.6640 2.9187
2.4123 -16.5386 2.9189
3.5916 -16.3257 2.9193
4.7521 -16.0264 2.9199
5.8873 -15.6425 2.9207
6.9780 -15.1478 2.9163
8.0364 -14.5925 2.9155
9.0519 -13.9645 2.9155
10.0167 -13.2634 2.9155
10.9257 -12.4934 2.9155
11.7737 -11.6593 2.9155
12.5564 -10.7661 2.9155
13.2695 -9.8192 2.9155
13.9097 -8.8241 2.9155
14.4735 -7.7867 2.9155
14.1868 -6.3666 2.7650
14.5847 -5.3251 2.7678
15.0009 -4.2864 2.7884
15.3312 -3.2126 2.8073
15.5581 -2.1099 2.8216
11.0311 -0.6961 1.9920
11.4299 0.1002 2.0660
11.4275 0.9225 2.0782
14.0604 2.1588 2.5862
11.5034 2.6225 2.1513
11.5009 3.5068 2.1987
11.4983 4.4303 2.2598
11.6302 5.4695 2.3637
11.4925 6.4499 2.4305
11.4893 7.5810 2.5455
11.5252 8.8546 2.6947
12.0260 10.6963 2.9916
11.2437 11.5491 3.0032
10.3994 12.3431 3.0141
9.4976 13.0736 3.0242
8.5433 13.7362 3.0334
7.5415 14.3270 3.0417
6.4250 14.6762 3.0149
5.3575 15.1086 3.0212
4.4920 16.3017 3.1911
3.3100 16.5847 3.1953
2.1100 16.7784 3.1981
0.8990 16.8817 3.1996
-0.3158 16.8940 3.1998
-1.5275 16.8155 3.1987
-2.7290 16.6466 3.1962
-3.2770 13.7242 2.6734
-4.3429 13.7331 2.7283
-6.2035 15.6137 3.1811
-7.2965 15.1018 3.1736
-8.3466 14.5111 3.1649
-9.3481 13.8455 3.1551
-10.2957 13.1093 3.1444
-11.1856 12.3085 3.1330
-12.0175 11.4512 3.1220
-12.7842 10.5382 3.1106
-13.4942 9.5832 3.1015
-14.1325 8.5804 3.0919
-14.6933 7.5339 3.0811
-15.1731 6.4496 3.0693
-15.5699 5.3345 3.0565
-15.8695 4.1917 3.0405
-16.0879 3.0340 3.0246
-16.2329 1.8679 3.0106
-16.3132 0.6976 3.0000
-16.3098 -0.4745 2.9894
-16.2231 -1.6424 2.9788
-16.0538 -2.8004 2.9683
-15.8142 -3.9455 2.9601
-15.4896 -5.0694 2.9513
-15.1178 -6.1803 2.9489
-14.6664 -7.2638 2.9467
-14.1375 -8.3144 2.9446
-13.5332 -9.3262 2.9426
-12.8562 -10.2938 2.9409
-12.1098 -11.2118 2.9393
-11.2959 -12.0735 2.9375
-10.4098 -12.8626 2.9329
-9.4629 -13.5784 2.9270
-8.4787 -14.2441 2.9256
-7.4463 -14.8357 2.9240
-6.3721 -15.3508 2.9227
-5.2618 -15.7864 2.9215
-4.1213 -16.1397 2.9205
-2.9570 -16.4085 2.9198
-1.7750 -16.5912 2.9192
-0.5820 -16.6866 2.9189
0.6154 -16.6939 2.9187
1.8106 -16.6130 2.9188
2.9970 -16.4442 2.9191
4.1678 -16.1885 2.9196
5.3166 -15.8471 2.9203
6.4310 -15.4078 2.9184
7.5055 -14.8816 2.9155
8.5442 -14.2916 2.9155
9.5353 -13.6269 2.9155
10.4732 -12.8912 2.9155
11.3526 -12.0889 2.9155
12.1689 -11.2250 2.9155
12.9177 -10.3045 2.9155
13.5952 -9.3331 2.9155
14.1980 -8.3163 2.9155
13.9567 -6.8822 2.7637
14.3930 -5.8554 2.7664
14.7658 -4.8053 2.7716
15.1868 -3.7626 2.8001
15.4531 -2.6701 2.8143
10.5000 -1.0463 1.8990
11.4311 -0.3150 2.0639
11.4287 0.5059 2.0707
11.4264 1.3318 2.0883
11.4387 2.1742 2.1199
11.5022 3.0554 2.1731
11.4996 3.9575 2.2271
11.5353 4.9215 2.3032
11.2204 5.7716 2.3238
11.4910 6.9966 2.4845
11.4876 8.1796 2.6112
11.4839 9.4897 2.7656
11.6474 11.1248 2.9974
10.8339 11.9491 3.0087
9.9606 12.7123 3.0192
9.0323 13.4098 3.0288
8.0538 14.0374 3.0376
7.0306 14.5914 3.0455
5.9016 14.8999 3.0182
4.8185 15.2926 3.0239
3.9105 16.4526 3.1933
2.7187 16.6917 3.1968
1.5124 16.8408 3.1990
0.2987 16.8992 3.1999
-0.9155 16.8665 3.1994
-2.1230 16.7432 3.1976
-2.7529 13.7198 2.6514
-3.7984 13.7286 2.6986
-5.6363 15.8416 3.1844
-6.7487 15.3708 3.1775
-7.8212 14.8194 3.1694
-8.8480 14.1913 3.1602
-9.8235 13.4902 3.1499
-10.7425 12.7208 3.1387
-11.6048 11.8922 3.1276
-12.4044 11.0063 3.1163
-13.1438 10.0725 3.1062
-13.8188 9.0932 3.0968
-14.4206 8.0689 3.0869
-14.9402 7.0021 3.0753
-15.3808 5.9024 3.0633
-15.7281 4.7719 3.0486
-15.9877 3.6210 3.0326
-16.1657 2.4580 3.0169
-16.2830 1.2901 3.0053
-16.3219 0.1182 2.9947
-16.2774 -1.0525 2.9841
-16.1497 -2.2163 2.9736
-15.9457 -3.3685 2.9643
-15.6649 -4.5042 2.9560
-15.3159 -5.6215 2.9501
-14.9045 -6.7196 2.9478
-14.4146 -7.7875 2.9456
-13.8481 -8.8196 2.9436
-13.2075 -9.8103 2.9417
-12.4958 -10.7540 2.9400
-11.7163 -11.6456 2.9385
-10.8686 -12.4754 2.9361
-9.9479 -13.2243 2.9298
-8.9832 -13.9169 2.9264
-7.9741 -14.5458 2.9248
-6.9203 -15.1000 2.9233
-5.8275 -15.5762 2.9221
-4.7016 -15.9714 2.9210
-3.5485 -16.2832 2.9201
-2.3746 -16.5097 2.9195
-1.1864 -16.6494 2.9190
0.0097 -16.7013 2.9188
1.2068 -16.6650 2.9187
2.3985 -16.5405 2.9189
3.5780 -16.3286 2.9193
4.7387 -16.0304 2.9199
5.8743 -15.6474 2.9207
6.9654 -15.1538 2.9163
8.0244 -14.5994 2.9155
9.0404 -13.9722 2.9155
10.0058 -13.2719 2.9155
10.9154 -12.5027 2.9155
11.7642 -11.6694 2.9155
12.5477 -10.7768 2.9155
13.2617 -9.8305 2.9155
13.9026 -8.8359 2.9155
14.4674 -7.7989 2.9155
14.1817 -6.3786 2.7650
14.5805 -5.3374 2.7678
14.9959 -4.2985 2.7881
15.3281 -3.2254 2.8071
15.5559 -2.1229 2.8214
11.0183 -0.7045 1.9897
11.4299 0.0906 2.0659
11.4276 0.9129 2.0780
14.0627 2.1471 2.5862
11.5035 2.6124 2.1508
11.5009 3.4963 2.1981
11.4983 4.4193 2.2590
11.6400 5.4622 2.3647
11.4926 6.4373 2.4293
11.4893 7.5673 2.5440
11.5355 8.8471 2.6953
12.0347 10.6860 2.9914
11.2531 11.5395 3.0031
10.4096 12.3342 3.0140
9.5085 13.0655 3.0241
8.5547 13.7289 3.0333
7.5534 14.3206 3.0416
6.4373 14.6707 3.0148
5.3701 15.1041 3.0212
4.5056 16.2979 3.1911
3.3239 16.5819 3.1952
2.1240 16.7767 3.1981
0.9131 16.8810 3.1996
-0.3017 16.8944 3.1998
-1.5135 16.8169 3.1987
-2.7151 16.6491 3.1962
-3.2649 13.7241 2.6728
-4.3303 13.7330 2.7276
-6.1906 15.6192 3.1811
-7.2840 15.1082 3.1736
-8.3347 14.5184 3.1650
-9.3368 13.8537 3.1553
-10.2850 13.1183 3.1445
-11.1756 12.3181 3.1331
-12.0082 11.4615 3.1221
-12.7755 10.5490 3.1107
-13.4863 9.5946 3.1016
-14.1255 8.5923 3.0920
-14.6872 7.5463 3.0813
-15.1679 6.4624 3.0694
-15.5659 5.3476 3.0567
-15.8665 4.2051 3.0406
-16.0859 3.0475 3.0248
-16.2315 1.8815 3.0107
-16.3127 0.7112 3.0001
-16.3103 -0.4608 2.9895
-16.2246 -1.6289 2.9789
-16.0561 -2.7870 2.9684
-15.8175 -3.9323 2.9602
-15.4934 -5.0564 2.9514
-15.1226 -6.1675 2.9490
-14.6721 -7.2514 2.9467
-14.1441 -8.3024 2.9446
-13.5406 -9.3147 2.9427
-12.8645 -10.2828 2.9409
-12.1189 -11.2014 2.9393
-11.3057 -12.0639 2.9375
-10.4205 -12.8539 2.9330
-9.4741 -13.5702 2.9270
-8.4904 -14.2368 2.9256
-7.4586 -14.8292 2.9241
-6.3848 -15.3453 2.9227
-5.2749 -15.7818 2.9215
-4.1348 -16.1360 2.9206
-2.9706 -16.4059 2.9198
-1.7888 -16.5896 2.9192
-0.5959 -16.6860 2.9189
0.6015 -16.6943 2.9187
1.7968 -16.6145 2.9188
2.9832 -16.4467 2.9191
4.1543 -16.1919 2.9195
5.3034 -15.8516 2.9202
6.4183 -15.4134 2.9185
7.4932 -14.8880 2.9155
8.5324 -14.2989 2.9155
9.5241 -13.6350 2.9155
10.4626 -12.9002 2.9155
11.3427 -12.0986 2.9155
12.1598 -11.2354 2.9155
12.9094 -10.3156 2.9155
13.5877 -9.3447 2.9155
14.1914 -8.3284 2.9155
13.9511 -6.8940 2.7636
14.3883 -5.8675 2.7664
14.7598 -4.8169 2.7712
15.1833 -3.7751 2.8000
15.4505 -2.6829 2.8141
10.4884 -1.0540 1.8970
11.4311 -0.3245 2.0638
11.4287 0.4964 2.0705
11.4264 1.3221 2.0880
11.4493 2.1663 2.1214
11.5022 3.0451 2.1726
11.4997 3.9468 2.2264
11.5157 4.9018 2.2984
11.2299 5.7646 2.3247
11.4910 6.9835 2.4831
11.4876 8.1652 2.6096
11.4839 9.4736 2.7636
11.6565 11.1149 2.9973
10.8437 11.9399 3.0085
9.9711 12.7038 3.0190
9.0433 13.4021 3.0287
8.0654 14.0305 3.0375
7.0427 14.5854 3.0454
5.9140 14.8948 3.0181
4.8313 15.2885 3.0239
3.9243 16.4493 3.1933
2.7327 16.6894 3.1968
1.5265 16.8396 3.1990
0.3128 16.8990 3.1999
5.4911 13.9983 3.0050
4.6934 15.0691 3.1583
3.6177 15.4479 3.1786
2.4987 15.6682 3.1818
1.3664 15.8043 3.1838
0.2274 15.8555 3.1846
-0.9117 15.8215 3.1841
-2.0444 15.7027 3.1823
-2.8002 13.7175 2.8138
-4.0570 14.4746 3.0208
-5.3392 14.8487 3.1698
-6.3823 14.4046 3.1633
-7.3881 13.8852 3.1557
-8.3508 13.2942 3.1471
-9.2657 12.6343 3.1374
-10.1312 11.9149 3.1279
-10.9415 11.1366 3.1180
-11.6914 10.3030 3.1073
-12.3891 9.4275 3.0989
-13.0215 8.5052 3.0901
-13.5850 7.5407 3.0808
-14.0733 6.5374 3.0703
-14.4856 5.5022 3.0590
-14.8220 4.4418 3.0474
-15.0715 3.3594 3.0336
-15.2379 2.2637 3.0188
-15.3273 1.1616 3.0043
-15.3604 0.0587 2.9942
-15.3155 -1.0430 2.9842
-15.1923 -2.1379 2.9743
-14.9960 -3.2215 2.9653
-14.7284 -4.2895 2.9576
-14.3933 -5.3388 2.9516
-14.0012 -6.3700 2.9494
-13.5353 -7.3723 2.9474
-12.9975 -8.3404 2.9455
-12.3904 -9.2691 2.9437
-11.7167 -10.1532 2.9422
-10.9796 -10.9879 2.9407
-10.1790 -11.7643 2.9385
-9.3124 -12.4675 2.9331
-8.3982 -13.1080 2.9283
-7.4472 -13.6947 2.9268
-6.4548 -14.2110 2.9254
-5.4261 -14.6539 2.9243
-4.3667 -15.0206 2.9233
-3.2822 -15.3090 2.9225
-2.1786 -15.5172 2.9218
-1.0620 -15.6439 2.9214
0.0616 -15.6883 2.9212
1.1859 -15.6499 2.9212
2.3047 -15.5290 2.9213
3.4118 -15.3260 2.9217
4.5011 -15.0421 2.9223
5.5664 -14.6789 2.9230
6.5883 -14.2091 2.9180
7.5768 -13.6778 2.9155
8.5289 -13.0867 2.9155
9.4334 -12.4272 2.9155
10.2856 -11.7033 2.9155
11.0807 -10.9193 2.9155
11.8146 -10.0800 2.9155
12.4833 -9.1902 2.9155
13.0837 -8.2553 2.9155
12.9036 -6.9016 2.7636
13.3471 -5.9508 2.7662
13.7225 -4.9726 2.7693
14.1490 -4.0058 2.7970
14.4335 -2.9880 2.8107
14.6423 -1.9496 2.8242
11.0684 -0.6715 2.1258
11.4298 0.1279 2.1973
11.4274 0.9504 2.2103
13.2197 2.0625 2.5862
11.5033 2.6519 2.2881
11.5008 3.5373 2.3386
11.4982 4.4623 2.4037
11.5720 5.4765 2.5017
11.4924 6.4866 2.5855
11.4892 7.6211 2.7081
11.4684 8.8554 2.8531
11.2713 10.0743 2.9838
10.5334 10.8725 2.9947
9.7376 11.6152 3.0049
8.8883 12.2981 3.0143
7.9899 12.9171 3.0230
7.0474 13.4687 3.0307
5.9946 13.7853 3.0018
4.9917 14.1879 3.0077
4.1766 15.3047 3.1765
3.0668 15.5672 3.1804
1.9404 15.7461 3.1830
0.8040 15.8403 3.1844
-0.3359 15.8493 3.1845
-1.4727 15.7733 3.1834
-2.5998 15.6129 3.1810
-3.7107 15.3691 3.1775
-4.7992 15.0437 3.1727
-5.8590 14.6389 3.1668
-6.8844 14.1572 3.1597
-7.8697 13.6017 3.1516
-8.8093 12.9764 3.1424
-9.6998 12.2860 3.1327
-10.5389 11.5375 3.1231
-11.3199 10.7313 3.1128
-12.0440 9.8764 3.1032
-12.7101 8.9773 3.0946
-13.3088 8.0335 3.0856
-13.8364 7.0496 3.0759
-14.2864 6.0293 3.0647
-14.6614 4.9810 3.0533
-14.9580 3.9096 3.0412
-15.1634 2.8190 3.0263
-15.2917 1.7195 3.0116
-15.3532 0.6167 2.9992
-15.3480 -0.4863 2.9892
-15.2644 -1.5853 2.9793
-15.1028 -2.6748 2.9694
-14.8736 -3.7518 2.9615
-14.5633 -4.8080 2.9528
-14.2089 -5.8517 2.9505
-13.7800 -6.8693 2.9484
-13.2784 -7.8554 2.9464
-12.7060 -8.8046 2.9446
-12.0656 -9.7119 2.9429
-11.3602 -10.5722 2.9414
-10.5917 -11.3794 2.9398
-9.7580 -12.1208 2.9360
-8.8651 -12.7903 2.9302
-7.9337 -13.4065 2.9275
-6.9617 -13.9588 2.9261
-5.9506 -14.4392 2.9248
-4.9061 -14.8448 2.9237
-3.8335 -15.1730 2.9228
-2.7389 -15.4220 2.9221
-1.6280 -15.5901 2.9216
-0.5072 -15.6762 2.9213
0.6175 -15.6797 2.9212
1.7399 -15.6005 2.9212
2.8537 -15.4389 2.9215
3.9527 -15.1958 2.9220
5.0309 -14.8724 2.9226
6.0822 -14.4708 2.9235
7.0809 -13.9534 2.9163
8.0529 -13.3944 2.9155
8.9821 -12.7691 2.9155
9.8614 -12.0772 2.9155
10.6859 -11.3231 2.9155
11.4513 -10.5112 2.9155
12.1534 -9.6462 2.9155
12.7887 -8.7335 2.9155
13.3541 -7.7783 2.9155
13.1315 -6.4356 2.7649
13.5402 -5.4701 2.7674
13.9374 -4.4982 2.7821
14.2999 -3.5060 2.8040
14.5459 -2.4770 2.8173
10.5340 -1.0239 2.0262
11.4310 -0.2872 2.1950
11.4286 0.5337 2.2023
11.4263 1.3599 2.2211
11.3733 2.1903 2.2418
11.5021 3.0852 2.3114
11.4995 3.9887 2.3689
13.2491 5.6907 2.8139
11.1879 5.7893 2.4648
11.4909 7.0349 2.6431
11.4875 8.2217 2.7782
11.6213 9.6509 2.9781
10.9141 10.4754 2.9893
10.1471 11.2467 2.9998
9.3243 11.9604 3.0097
8.4502 12.6122 3.0187
7.5294 13.1983 3.0269
6.4895 13.5535 2.9984
5.5028 13.9936 3.0049
4.6947 15.0290 3.1507
3.6306 15.4448 3.1786
2.5118 15.6661 3.1818
1.3796 15.8032 3.1838
0.2407 15.8554 3.1846
-0.8985 15.8224 3.1841
-2.0313 15.7045 3.1824
-2.7883 13.7174 2.8133
-4.0465 14.4835 3.0219
-5.3269 14.8534 3.1699
-6.3704 14.4102 3.1634
-7.3766 13.8917 3.1558
-8.3399 13.3017 3.1472
-9.2554 12.6423 3.1375
-10.1215 11.9236 3.1280
-10.9324 11.1460 3.1181
-11.6831 10.3130 3.1074
-12.3814 9.4380 3.0990
-13.0145 8.5162 3.0902
-13.5789 7.5521 3.0809
-14.0680 6.5492 3.0704
-14.4812 5.5144 3.0591
-14.8185 4.4542 3.0475
-15.0691 3.3721 3.0338
-15.2365 2.2765 3.0190
-15.3267 1.1745 3.0045
-15.3605 0.0715 2.9943
-15.3165 -1.0302 2.9843
-15.1942 -2.1252 2.9744
-14.9986 -3.2090 2.9654
-14.7320 -4.2772 2.9577
-14.3974 -5.3266 2.9516
-14.0062 -6.3581 2.9494
-13.5411 -7.3608 2.9474
-13.0042 -8.3294 2.9455
-12.3979 -9.2586 2.9438
-11.7249 -10.1432 2.9422
-10.9885 -10.9785 2.9408
-10.1886 -11.7557 2.9385
-9.3228 -12.4597 2.9331
-8.4089 -13.1007 2.9283
-7.4585 -13.6882 2.9268
-6.4666 -14.2054 2.9254
-5.4382 -14.6491 2.9243
-4.3791 -15.0168 2.9233
-3.2949 -15.3061 2.9225
-2.1915 -15.5152 2.9218
-1.0750 -15.6429 2.9214
0.0485 -15.6882 2.9212
1.1729 -15.6508 2.9212
2.2918 -15.5309 2.9213
3.3991 -15.3288 2.9217
4.4885 -15.0459 2.9223
5.5542 -14.6836 2.9230
6.5766 -14.2147 2.9180
7.5655 -13.6842 2.9155
8.5181 -13.0940 2.9155
9.4232 -12.4352 2.9155
10.2761 -11.7121 2.9155
11.0718 -10.9288 2.9155
11.8064 -10.0900 2.9155
12.4759 -9.2009 2.9155
13.0771 -8.2664 2.9155
12.8980 -6.9124 2.7636
13.3424 -5.9620 2.7661
13.7184 -4.9840 2.7693
14.1446 -4.0173 2.7967
14.4306 -3.0000 2.8106
14.6403 -1.9617 2.8241
11.0555 -0.6800 2.1234
11.4298 0.1183 2.1972
11.4275 0.9408 2.2101
13.2218 2.0516 2.5862
11.5034 2.6418 2.2876
11.5008 3.5267 2.3380
11.4982 4.4513 2.4029
11.5817 5.4692 2.5028
11.4924 6.4740 2.5843
11.4892 7.6073 2.7065
11.4786 8.8480 2.8537
11.2795 10.0647 2.9837
10.5422 10.8635 2.9946
9.7472 11.6069 3.0048
8.8985 12.2905 3.0142
8.0007 12.9103 3.0229
7.0586 13.4627 3.0306
6.0061 13.7802 3.0018
5.0035 14.1837 3.0077
4.1893 15.3012 3.1765
3.0798 15.5646 3.1803
1.9536 15.7445 3.1830
0.8172 15.8396 3.1843
-0.3227 15.8497 3.1845
-1.4595 15.7747 3.1834
-2.5867 15.6152 3.1811
-3.6979 15.3724 3.1775
-4.7867 15.0480 3.1728
-5.8469 14.6440 3.1668
-6.8727 14.1632 3.1598
-7.8584 13.6086 3.1517
-8.7987 12.9838 3.1425
-9.6897 12.2943 3.1328
-10.5295 11.5465 3.1232
-11.3111 10.7410 3.1129
-12.0359 9.8865 3.1033
-12.7027 8.9881 3.0947
-13.3022 8.0447 3.0857
-13.8307 7.0612 3.0760
-14.2816 6.0413 3.0648
-14.6575 4.9933 3.0534
-14.9551 3.9222 3.0414
-15.1614 2.8318 3.0264
-15.2907 1.7323 3.0118
-15.3528 0.6296 2.9994
-15.3485 -0.4734 2.9894
-15.2658 -1.5726 2.9794
-15.1051 -2.6622 2.9695
-14.8767 -3.7393 2.9616
-14.5675 -4.7959 2.9529
-14.2134 -5.8397 2.9505
-13.7854 -6.8576 2.9484
-13.2846 -7.8441 2.9464
-12.7131 -8.7938 2.9446
-12.0735 -9.7016 2.9430
-11.3687 -10.5625 2.9415
-10.6010 -11.3703 2.9398
-9.7681 -12.1126 2.9361
-8.8758 -12.7829 2.9303
-7.9448 -13.3997 2.9275
-6.9732 -13.9528 2.9261
-5.9626 -14.4340 2.9248
-4.9184 -14.8405 2.9238
-3.8461 -15.1697 2.9229
-2.7517 -15.4195 2.9221
-1.6411 -15.5886 2.9216
-0.5203 -15.6756 2.9213
0.6044 -15.6801 2.9212
1.7269 -15.6018 2.9212
2.8408 -15.4412 2.9215
3.9400 -15.1990 2.9220
5.0185 -14.8767 2.9226
6.0702 -14.4759 2.9235
7.0695 -13.9600 2.9164
8.0418 -13.4013 2.9155
8.9716 -12.7768 2.9155
9.8515 -12.0857 2.9155
10.6767 -11.3322 2.9155
11.4427 -10.5209 2.9155
12.1456 -9.6566 2.9155
12.7817 -8.7444 2.9155
13.3479 -7.7896 2.9155
13.1264 -6.4467 2.7648
13.5359 -5.4815 2.7674
13.9322 -4.5094 2.7818
14.2966 -3.5178 2.8038
14.5435 -2.4891 2.8172
10.5223 -1.0317 2.0240
11.4310 -0.2968 2.1950
11.4287 0.5241 2.2021
11.4263 1.3502 2.2208
11.3837 2.1825 2.2434
11.5021 3.0749 2.3108
11.4996 3.9779 2.3681
13.2799 5.6908 2.8194
11.1745 5.7705 2.4607
11.4909 7.0217 2.6417
11.4875 8.2072 2.7765
11.6291 9.6411 2.9779
10.9226 10.4661 2.9892
10.1563 11.2380 2.9997
9.3342 11.9524 3.0095
8.4606 12.6050 3.0186
7.5403 13.1919 3.0268
6.5008 13.5480 2.9984
5.5144 13.9889 3.0048
4.6960 14.9893 3.1431
3.6435 15.4417 3.1785
2.5249 15.6640 3.1818
1.3929 15.8021 3.1838
0.2539 15.8553 3.1846
-0.8853 15.8233 3.1841
-2.0182 15.7064 3.1824
-2.7763 13.7173 2.8128
-4.0362 14.4933 3.0233
-5.3146 14.8581 3.1700
-6.3585 14.4158 3.1635
-7.3651 13.8981 3.1559
-8.3290 13.3088 3.1473
-9.2450 12.6504 3.1376
-10.1117 11.9323 3.1281
-10.9233 11.1554 3.1182
-11.6747 10.3229 3.1076
-12.3736 9.4484 3.0991
-13.0076 8.5272 3.0903
-13.5727 7.5636 3.0810
-14.0628 6.5611 3.0705
-14.4768 5.5266 3.0592
-14.8151 4.4667 3.0476
-15.0667 3.3848 3.0340
-15.2349 2.2892 3.0191
-15.3261 1.1873 3.0046
-15.3605 0.0843 2.9944
-15.3174 -1.0174 2.9844
-15.1961 -2.1126 2.9745
-15.0013 -3.1964 2.9655
-14.7355 -4.2649 2.9578
-14.4016 -5.3145 2.9517
-14.0111 -6.3463 2.9495
-13.5469 -7.3494 2.9474
-13.0109 -8.3183 2.9455
-12.4053 -9.2480 2.9438
-11.7331 -10.1332 2.9422
-10.9975 -10.9691 2.9408
-10.1983 -11.7470 2.9385
-9.3332 -12.4519 2.9332
-8.4196 -13.0933 2.9283
-7.4699 -13.6818 2.9268
-6.4783 -14.1998 2.9255
-5.4504 -14.6444 2.9243
-4.3917 -15.0129 2.9233
-3.3077 -15.3032 2.9225
-2.2045 -15.5133 2.9219
-1.0881 -15.6419 2.9214
0.0354 -15.6882 2.9212
1.1598 -15.6518 2.9212
2.2788 -15.5327 2.9213
3.3862 -15.3316 2.9217
4.4760 -15.0497 2.9223
5.5419 -14.6883 2.9230
6.5648 -14.2204 2.9180
7.5542 -13.6908 2.9155
8.5072 -13.1012 2.9155
9.4130 -12.4433 2.9155
10.2661 -11.7208 2.9155
11.0629 -10.9382 2.9155
11.7982 -10.1001 2.9155
12.4685 -9.2115 2.9155
13.0705 -8.2775 2.9155
12.8925 -6.9233 2.7636
13.3376 -5.9733 2.7661
13.7142 -4.9955 2.7692
14.1403 -4.0288 2.7964
14.4277 -3.0119 2.8104
14.6383 -1.9739 2.8239
11.0427 -0.6884 2.1209
11.4298 0.1088 2.1971
11.4275 0.9312 2.2099
13.2239 2.0406 2.5862
11.5034 2.6317 2.2871
11.5009 3.5162 2.3373
11.4982 4.4403 2.4020
11.5915 5.4620 2.5038
11.4925 6.4614 2.5830
11.4893 7.5936 2.7050
11.4888 8.8406 2.8543
11.2877 10.0551 2.9836
10.5512 10.8545 2.9945
9.7567 11.5985 3.0047
8.9086 12.2829 3.0141
8.0114 12.9035 3.0228
7.0698 13.4566 3.0306
6.0176 13.7750 3.0017
5.0153 14.1794 3.0076
4.2021 15.2977 3.1764
3.0928 15.5621 3.1803
1.9667 15.7428 3.1829
0.8305 15.8390 3.1843
-0.3094 15.8501 3.1845
-1.4463 15.7761 3.1834
-2.5737 15.6176 3.1811
-3.6851 15.3757 3.1776
-4.7741 15.0522 3.1728
-5.8347 14.6492 3.1669
-6.8610 14.1692 3.1599
-7.8472 13.6155 3.1518
-8.7880 12.9916 3.1426
-9.6796 12.3026 3.1329
-10.5201 11.5556 3.1233
-11.3024 10.7507 3.1130
-12.0278 9.8967 3.1034
-12.6953 8.9988 3.0948
-13.2957 8.0560 3.0858
-13.8250 7.0729 3.0761
-14.2768 6.0534 3.0650
-14.6536 5.0056 3.0535
-14.9523 3.9348 3.0415
-15.1595 2.8445 3.0266
-15.2896 1.7452 3.0119
-15.3524 0.6424 2.9995
-15.3490 -0.4606 2.9895
-15.2672 -1.5598 2.9795
-15.1074 -2.6496 2.9697
-14.8798 -3.7269 2.9617
-14.5716 -4.7838 2.9531
-14.2180 -5.8276 2.9506
-13.7909 -6.8459 2.9484
-13.2908 -7.8328 2.9465
-12.7201 -8.7830 2.9446
-12.0813 -9.6913 2.9430
-11.3773 -10.5528 2.9415
-10.6103 -11.3613 2.9398
-9.7782 -12.1044 2.9362
-8.8864 -12.7755 2.9304
-7.9559 -13.3928 2.9276
-6.9848 -13.9468 2.9261
-5.9746 -14.4289 2.9249
-4.9307 -14.8362 2.9238
-3.8588 -15.1663 2.9229
-2.7645 -15.4171 2.9221
-1.6540 -15.5871 2.9216
-0.5334 -15.6751 2.9213
0.5914 -15.6805 2.9212
1.7139 -15.6032 2.9212
2.8279 -15.4435 2.9215
3.9274 -15.2023 2.9220
5.0061 -14.8809 2.9226
6.0581 -14.4810 2.9235
7.0582 -13.9665 2.9165
8.0307 -13.4082 2.9155
8.9611 -12.7844 2.9155
9.8415 -12.0941 2.9155
10.6674 -11.3413 2.9155
11.4342 -10.5307 2.9155
12.1378 -9.6669 2.9155
12.7747 -8.7553 2.9155
13.3418 -7.8010 2.9155
13.1212 -6.4577 2.7648
13.5315 -5.4929 2.7674
13.9271 -4.5206 2.7814
14.2933 -3.5297 2.8037
14.5410 -2.5011 2.8170
10.5106 -1.0394 2.0219
11.4310 -0.3063 2.1950
11.4287 0.5146 2.2020
11.4263 1.3405 2.2205
11.3942 2.1746 2.2451
11.5022 3.0646 2.3102
11.4996 3.9672 2.3674
13.3108 5.6909 2.8248
11.1836 5.7634 2.4616
11.4909 7.0085 2.6403
11.4876 8.1928 2.7748
11.6370 9.6312 2.9778
10.9312 10.4568 2.9890
10.1656 11.2294 2.9996
9.3441 11.9444 3.0094
8.4711 12.5978 3.0185
7.5513 13.1855 3.0267
6.5120 13.5424 2.9983
5.5261 13.9842 3.0048
4.6973 14.9495 3.1356
3.6564 15.4387 3.1785
2.5380 15.6619 3.1817
1.4061 15.8010 3.1838
0.2672 15.8551 3.1846
-0.8720 15.8241 3.1841
-2.0050 15.7082 3.1824
-2.7644 13.7172 2.8123
-4.0261 14.5041 3.0248
-5.3022 14.8628 3.1700
-6.3465 14.4214 3.1636
-7.3537 13.9046 3.1560
-8.3181 13.3159 3.1474
-9.2346 12.6584 3.1377
-10.1019 11.9410 3.1283
-10.9142 11.1648 3.1183
-11.6663 10.3329 3.1077
-12.3659 9.4589 3.0992
-13.0006 8.5382 3.0904
-13.5666 7.5750 3.0811
-14.0575 6.5729 3.0706
-14.4724 5.5388 3.0594
-14.8116 4.4791 3.0478
-15.0643 3.3975 3.0341
-15.2334 2.3020 3.0193
-15.3254 1.2001 3.0048
-15.3606 0.0972 2.9945
-15.3184 -1.0046 2.9846
-15.1979 -2.0999 2.9746
-15.0039 -3.1839 2.9656
-14.7391 -4.2526 2.9578
-14.4056 -5.3024 2.9517
-14.0161 -6.3345 2.9495
-13.5527 -7.3379 2.9475
-13.0175 -8.3073 2.9455
-12.4128 -9.2374 2.9438
-11.7413 -10.1232 2.9422
-11.0063 -10.9597 2.9408
-10.2079 -11.7383 2.9386
-9.3435 -12.4441 2.9333
-8.4303 -13.0860 2.9283
-7.4811 -13.6754 2.9268
-6.4900 -14.1942 2.9255
-5.4625 -14.6397 2.9243
-4.4041 -15.0091 2.9233
-3.3204 -15.3003 2.9225
-2.2174 -15.5113 2.9219
-1.1011 -15.6409 2.9214
0.0224 -15.6881 2.9212
1.1468 -15.6527 2.9212
2.2659 -15.5346 2.9213
3.3735 -15.3345 2.9217
4.4634 -15.0534 2.9223
5.5297 -14.6929 2.9230
6.5530 -14.2260 2.9180
7.5430 -13.6973 2.9155
8.4964 -13.1085 2.9155
9.4028 -12.4513 2.9155
10.2567 -11.7296 2.9155
11.0540 -10.9476 2.9155
11.7901 -10.1101 2.9155
12.4611 -9.2220 2.9155
13.0640 -8.2886 2.9155
12.8869 -6.9341 2.7635
13.3328 -5.9845 2.7661
13.7101 -5.0069 2.7691
14.1359 -4.0403 2.7962
14.4249 -3.0239 2.8102
14.6363 -1.9860 2.8237
11.0299 -0.6969 2.1185
11.4299 0.0993 2.1970
11.4275 0.9216 2.2097
14.2957 2.1937 2.7953
11.5034 2.6216 2.2866
11.5009 3.5057 2.3366
11.4983 4.4292 2.4012
11.6013 5.4548 2.5049
11.4925 6.4487 2.5817
11.4893 7.5798 2.7034
11.4990 8.8331 2.8550
11.2959 10.0455 2.9834
10.5601 10.8455 2.9943
9.7663 11.5902 3.0046
8.9188 12.2752 3.0140
8.0221 12.8966 3.0227
7.0810 13.4506 3.0305
6.0290 13.7699 3.0016
5.0272 14.1751 3.0075
4.2150 15.2941 3.1763
3.1058 15.5594 3.1802
1.9799 15.7412 3.1829
0.8438 15.8384 3.1843
-0.2961 15.8505 3.1845
-1.4331 15.7774 3.1834
-2.5606 15.6199 3.1811
-3.6723 15.3790 3.1776
-4.7616 15.0564 3.1729
-5.8226 14.6543 3.1670
-6.8492 14.1752 3.1600
-7.8359 13.6224 3.1519
-8.7773 12.9990 3.1427
-9.6695 12.3110 3.1330
-10.5106 11.5646 3.1234
-11.2936 10.7604 3.1132
-12.0196 9.9069 3.1035
-12.6879 9.0095 3.0949
-13.2891 8.0672 3.0859
-13.8193 7.0846 3.0762
-14.2719 6.0654 3.0651
-14.6496 5.0180 3.0537
-14.9494 3.9475 3.0417
-15.1575 2.8573 3.0268
-15.2885 1.7580 3.0121
-15.3520 0.6553 2.9996
-15.3495 -0.4478 2.9896
-15.2686 -1.5470 2.9796
-15.1098 -2.6370 2.9698
-14.8829 -3.7144 2.9618
-14.5758 -4.7717 2.9532
-14.2225 -5.8156 2.9506
-13.7962 -6.8342 2.9485
-13.2971 -7.8215 2.9465
-12.7272 -8.7722 2.9447
-12.0891 -9.6810 2.9430
-11.3859 -10.5430 2.9415
-10.6196 -11.3522 2.9399
-9.7883 -12.0962 2.9362
-8.8971 -12.7680 2.9304
-7.9669 -13.3859 2.9276
-6.9963 -13.9407 2.9261
-5.9865 -14.4237 2.9249
-4.9430 -14.8319 2.9238
-3.8714 -15.1629 2.9229
-2.7774 -15.4146 2.9221
-1.6670 -15.5856 2.9216
-0.5464 -15.6745 2.9213
0.5783 -15.6809 2.9212
1.7008 -15.6046 2.9212
2.8150 -15.4459 2.9215
3.9147 -15.2056 2.9219
4.9937 -14.8851 2.9226
6.0460 -14.4861 2.9235
7.0469 -13.9731 2.9166
8.0196 -13.4150 2.9155
8.9505 -12.7921 2.9155
9.8316 -12.1025 2.9155
10.6581 -11.3504 2.9155
11.4256 -10.5404 2.9155
12.1300 -9.6773 2.9155
12.7677 -8.7661 2.9155
13.3355 -7.8123 2.9155
13.1160 -6.4688 2.7648
13.5272 -5.5043 2.7673
13.9219 -4.5317 2.7810
14.2900 -3.5415 2.8035
14.5385 -2.5132 2.8169
10.4989 -1.0471 2.0198
11.4311 -0.3159 2.1950
11.4287 0.5050 2.2019
11.4264 1.3308 2.2202
11.4046 2.1667 2.2467
11.5022 3.0543 2.3096
11.4996 3.9565 2.3666
11.5334 4.9196 2.4467
11.1930 5.7564 2.4625
11.4910 6.9954 2.6388
11.4876 8.1783 2.7730
11.6448 9.6213 2.9777
10.9398 10.4475 2.9889
10.1748 11.2207 2.9995
9.3539 11.9365 3.0093
8.4815 12.5905 3.0184
7.5622 13.1790 3.0266
6.5233 13.5369 2.9982
5.5378 13.9795 3.0047
4.6986 14.9099 3.1281
3.6693 15.4356 3.1784
2.5511 15.6598 3.1817
1.4193 15.7999 3.1838
0.2805 15.8550 3.1846
-0.8588 15.8250 3.1841
-1.9919 15.7101 3.1825
-2.7524 13.7171 2.8118
-4.0163 14.5160 3.0266
-5.2899 14.8675 3.1701
-6.3346 14.4270 3.1637
-7.3422 13.9110 3.1561
-8.3071 13.3232 3.1475
-9.2243 12.6664 3.1379
-10.0922 11.9497 3.1284
-10.9051 11.1741 3.1185
-11.6579 10.3429 3.1078
-12.3581 9.4693 3.0993
-12.9936 8.5491 3.0905
-13.5604 7.5864 3.0813
-14.0523 6.5848 3.0708
-14.4681 5.5510 3.0595
-14.8081 4.4916 3.0479
-15.0619 3.4101 3.0343
-15.2319 2.3148 3.0195
-15.3248 1.2130 3.0050
-15.3606 0.1100 2.9946
-15.3193 -0.9919 2.9847
-15.1998 -2.0872 2.9747
-15.0065 -3.1714 2.9657
-14.7426 -4.2403 2.9579
-14.4098 -5.2902 2.9517
-14.0211 -6.3226 2.9495
-13.5585 -7.3264 2.9475
-13.0241 -8.2962 2.9456
-12.4202 -9.2269 2.9438
-11.7495 -10.1132 2.9422
-11.0153 -10.9503 2.9408
-10.2175 -11.7296 2.9386
-9.3539 -12.4363 2.9333
-8.4410 -13.0786 2.9283
-7.4924 -13.6689 2.9268
-6.5018 -14.1886 2.9255
-5.4747 -14.6349 2.9243
-4.4165 -15.0053 2.9233
-3.3331 -15.2973 2.9225
-2.2303 -15.5093 2.9219
-1.1141 -15.6398 2.9214
0.0093 -15.6880 2.9212
1.1337 -15.6536 2.9212
2.2529 -15.5364 2.9213
3.3607 -15.3373 2.9217
4.4509 -15.0571 2.9222
5.5175 -14.6976 2.9230
6.5412 -14.2316 2.9180
7.5317 -13.7038 2.9155
8.4856 -13.1157 2.9155
9.3925 -12.4593 2.9155
10.2471 -11.7383 2.9155
11.0451 -10.9571 2.9155
11.7819 -10.1202 2.9155
12.4537 -9.2326 2.9155
13.0572 -8.2997 2.9155
12.8813 -6.9450 2.7635
13.3281 -5.9957 2.7660
13.7059 -5.0183 2.7690
14.1316 -4.0518 2.7959
14.4220 -3.0358 2.8101
14.6342 -1.9983 2.8236
11.0171 -0.7053 2.1161
11.4299 0.0897 2.1969
11.4276 0.9119 2.2095
14.3773 2.1939 2.8108
11.5035 2.6115 2.2861
11.5009 3.4952 2.3360
11.4983 4.4182 2.4003
11.6111 5.4475 2.5059
11.4926 6.4361 2.5804
11.4893 7.5660 2.7019
11.5092 8.8257 2.8556
11.3041 10.0359 2.9833
10.5690 10.8365 2.9942
9.7759 11.5819 3.0044
8.9290 12.2676 3.0139
8.0328 12.8898 3.0226
7.0922 13.4445 3.0304
6.0405 13.7647 3.0015
5.0390 14.1708 3.0075
4.2277 15.2905 3.1763
3.1189 15.5569 3.1802
1.9931 15.7396 3.1829
0.8570 15.8378 3.1843
-0.2829 15.8508 3.1845
-1.4199 15.7787 3.1835
-2.5476 15.6222 3.1812
-3.6594 15.3823 3.1777
-4.7491 15.0606 3.1729
-5.8104 14.6594 3.1671
-6.8375 14.1813 3.1601
-7.8247 13.6292 3.1520
-8.7667 13.0068 3.1429
-9.6593 12.3193 3.1331
-10.5011 11.5737 3.1236
-11.2849 10.7700 3.1133
-12.0115 9.9171 3.1036
-12.6805 9.0202 3.0950
-13.2825 8.0784 3.0860
-13.8136 7.0963 3.0764
-14.2671 6.0775 3.0652
-14.6456 5.0303 3.0538
-14.9466 3.9601 3.0419
-15.1555 2.8700 3.0269
-15.2875 1.7708 3.0123
-15.3515 0.6681 2.9997
-15.3500 -0.4350 2.9897
-15.2700 -1.5343 2.9798
-15.1120 -2.6244 2.9699
-14.8859 -3.7020 2.9619
-14.5800 -4.7596 2.9533
-14.2270 -5.8036 2.9506
-13.8016 -6.8226 2.9485
-13.3033 -7.8102 2.9465
-12.7342 -8.7613 2.9447
-12.0969 -9.6707 2.9430
-11.3944 -10.5333 2.9415
-10.6289 -11.3432 2.9399
-9.7984 -12.0880 2.9363
-8.9077 -12.7606 2.9305
-7.9780 -13.3791 2.9276
-7.0078 -13.9347 2.9262
-5.9985 -14.4185 2.9249
-4.9553 -14.8276 2.9238
-3.8840 -15.1595 2.9229
-2.7902 -15.4122 2.9222
-1.6800 -15.5840 2.9216
-0.5595 -15.6740 2.9213
0.5652 -15.6813 2.9212
1.6878 -15.6060 2.9212
2.8022 -15.4482 2.9215
3.9020 -15.2089 2.9219
4.9813 -14.8892 2.9226
6.0340 -14.4912 2.9234
7.0356 -13.9797 2.9167
8.0085 -13.4219 2.9155
8.9400 -12.7997 2.9155
9.8217 -12.1109 2.9155
10.6489 -11.3595 2.9155
11.4170 -10.5501 2.9155
12.1222 -9.6876 2.9155
12.7607 -8.7770 2.9155
13.3294 -7.8236 2.9155
13.1108 -6.4798 2.7648
13.5228 -5.5156 2.7673
13.9168 -4.5429 2.7807
14.2867 -3.5534 2.8034
14.5361 -2.5253 2.8167
10.4873 -1.0548 2.0176
11.4311 -0.3254 2.1950
11.4287 0.4954 2.2017
11.4264 1.3212 2.2200
11.4151 2.1588 2.2483
11.5022 3.0441 2.3090
11.4997 3.9457 2.3659
11.5138 4.8999 2.4416
11.2025 5.7494 2.4635
11.4910 6.9823 2.6374
11.4876 8.1639 2.7713
11.6527 9.6114 2.9775
10.9483 10.4382 2.9888
10.1840 11.2120 2.9994
9.3638 11.9285 3.0092
8.4919 12.5833 3.0183
7.5732 13.1726 3.0265
6.5346 13.5313 2.9981
5.5494 13.9748 3.0046
4.6999 14.8706 3.1206
3.6822 15.4325 3.1784
2.5642 15.6577 3.1817
1.4325 15.7987 3.1837
0.2937 15.8549 3.1846
5.1710 13.1804 2.9930
4.4418 14.2594 3.1612
3.4067 14.5447 3.1654
2.3530 14.7522 3.1684
1.2869 14.8805 3.1703
0.2144 14.9290 3.1710
-0.8583 14.8974 3.1705
-1.9250 14.7862 3.1689
-2.9796 14.5961 3.1661
-4.0162 14.3284 3.1622
-5.0288 13.9849 3.1572
-6.0119 13.5679 3.1511
-6.9600 13.0799 3.1439
-7.8679 12.5242 3.1358
-8.7341 11.9085 3.1278
-9.5518 11.2325 3.1192
-10.3168 10.4999 3.1098
-11.0283 9.7175 3.1007
-11.6875 8.8926 3.0929
-12.2848 8.0230 3.0846
-12.8172 7.1134 3.0758
-13.2806 6.1680 3.0662
-13.6708 5.1916 3.0556
-13.9895 4.1912 3.0446
-14.2354 3.1719 3.0335
-14.4025 2.1384 3.0212
-14.4887 1.0969 3.0074
-14.5026 0.0542 2.9941
-14.4607 -0.9860 2.9847
-14.3450 -2.0199 2.9754
-14.1584 -3.0428 2.9666
-13.9060 -4.0513 2.9593
-13.5860 -5.0406 2.9530
-13.2144 -6.0133 2.9510
-12.7733 -6.9586 2.9490
-12.2646 -7.8714 2.9472
-11.6904 -8.7468 2.9456
-11.0536 -9.5800 2.9441
-10.3571 -10.3664 2.9428
-9.6013 -11.0982 2.9407
-8.7856 -11.7637 2.9362
-7.9206 -12.3642 2.9309
-7.0212 -12.9129 2.9286
-6.0851 -13.3989 2.9274
-5.1150 -13.8155 2.9262
-4.1160 -14.1604 2.9253
-3.0936 -14.4315 2.9245
-2.0533 -14.6272 2.9240
-1.0007 -14.7461 2.9236
0.0583 -14.7874 2.9234
1.1179 -14.7510 2.9233
2.1724 -14.6367 2.9235
3.2157 -14.4453 2.9239
4.2423 -14.1778 2.9244
5.2464 -13.8356 2.9251
6.2148 -13.4043 2.9224
7.1387 -12.8876 2.9163
8.0338 -12.3279 2.9155
8.8864 -11.7075 2.9155
9.6899 -11.0264 2.9155
10.4399 -10.2888 2.9155
11.1323 -9.4989 2.9155
11.7637 -8.6614 2.9155
12.3307 -7.7813 2.9155
12.1672 -6.5087 2.7647
12.5863 -5.6126 2.7671
12.9676 -4.7001 2.7757
13.3601 -3.7835 2.8009
13.6245 -2.8216 2.8133
13.8198 -1.8412 2.8261
11.0671 -0.6723 2.2532
11.4298 0.1269 2.3289
11.4274 0.9494 2.3424
11.7945 1.8392 2.4449
11.5033 2.6509 2.4241
11.5008 3.5362 2.4773
11.4982 4.4613 2.5458
11.5432 5.4617 2.6427
11.4924 6.4854 2.7376
11.8393 7.8520 2.9544
11.2620 8.6947 2.9657
10.6235 9.4940 2.9766
9.9272 10.2454 2.9868
9.1766 10.9445 2.9964
8.3757 11.5873 3.0053
7.5287 12.1699 3.0134
6.5584 12.5325 2.9835
5.6452 12.9801 2.9900
4.7200 13.4137 3.0080
3.9330 14.4101 3.1634
2.8879 14.6571 3.1670
1.8273 14.8255 3.1695
0.7573 14.9144 3.1708
-0.3161 14.9234 3.1709
-1.3866 14.8524 3.1699
-2.4481 14.7021 3.1677
-3.4945 14.4734 3.1643
-4.5200 14.1680 3.1599
-5.5187 13.7879 3.1543
-6.4851 13.3354 3.1477
-7.4140 12.8136 3.1400
-8.3017 12.2276 3.1319
-9.1445 11.5818 3.1237
-9.9367 10.8772 3.1147
-10.6742 10.1182 3.1049
-11.3616 9.3157 3.0969
-11.9906 8.4681 3.0888
-12.5562 7.5782 3.0803
-13.0556 6.6507 3.0713
-13.4823 5.6888 3.0610
-13.8374 4.6999 3.0502
-14.1202 3.6895 3.0391
-14.3297 2.6629 3.0279
-14.4542 1.6242 3.0143
-14.5044 0.5815 3.0008
-14.4911 -0.4603 2.9895
-14.4127 -1.4980 2.9801
-14.2607 -2.5269 2.9708
-14.0429 -3.5435 2.9630
-13.7525 -4.5416 2.9553
-13.4112 -5.5244 2.9520
-13.0050 -6.4842 2.9500
-12.5302 -7.4141 2.9481
-11.9888 -8.3090 2.9464
-11.3834 -9.1641 2.9448
-10.7167 -9.9748 2.9434
-9.9910 -10.7354 2.9419
-9.2060 -11.4366 2.9390
-8.3636 -12.0682 2.9335
-7.4803 -12.6417 2.9293
-6.5632 -13.1616 2.9280
-5.6096 -13.6136 2.9268
-4.6246 -13.9951 2.9258
-3.6134 -14.3037 2.9249
-2.5814 -14.5377 2.9242
-1.5343 -14.6956 2.9237
-0.4778 -14.7762 2.9234
0.5822 -14.7792 2.9233
1.6400 -14.7042 2.9234
2.6897 -14.5518 2.9237
3.7255 -14.3226 2.9241
4.7416 -14.0179 2.9247
5.7326 -13.6395 2.9255
6.6738 -13.1520 2.9182
7.5853 -12.6174 2.9155
8.4610 -12.0291 2.9155
9.2899 -11.3783 2.9155
10.0675 -10.6687 2.9155
10.7895 -9.9047 2.9155
11.4522 -9.0907 2.9155
12.0521 -8.2315 2.9155
11.9304 -6.9501 2.7635
12.3825 -6.0695 2.7659
12.7688 -5.1595 2.7683
13.1765 -4.2537 2.7896
13.4993 -3.3108 2.8070
13.7298 -2.3391 2.8196
10.5329 -1.0247 2.1478
11.4310 -0.2881 2.3267
11.4286 0.5327 2.3341
11.4263 1.3589 2.3536
11.3394 2.1828 2.3682
11.5021 3.0842 2.4485
11.4995 3.9876 2.5091
12.9995 5.5822 2.9239
11.4940 5.9465 2.6814
11.4909 7.0336 2.7984
11.5618 8.2736 2.9600
10.9539 9.0954 2.9712
10.2864 9.8716 2.9817
9.5628 10.5977 2.9916
8.7868 11.2695 3.0009
7.9626 11.8829 3.0094
7.0945 12.4345 3.0171
6.1113 12.7622 2.9868
5.1820 13.1760 2.9929
4.4537 14.2556 3.1611
3.4189 14.5419 3.1653
2.3654 14.7502 3.1684
1.2993 14.8794 3.1703
0.2269 14.9289 3.1710
-0.8458 14.8983 3.1706
-1.9127 14.7880 3.1689
-2.9674 14.5988 3.1662
-4.0043 14.3320 3.1623
-5.0172 13.9894 3.1572
-6.0007 13.5731 3.1511
-6.9492 13.0860 3.1440
-7.8576 12.5310 3.1359
-8.7243 11.9160 3.1279
-9.5426 11.2407 3.1193
-10.3082 10.5087 3.1099
-11.0202 9.7269 3.1008
-11.6802 8.9025 3.0930
-12.2782 8.0333 3.0847
-12.8114 7.1242 3.0759
-13.2756 6.1792 3.0663
-13.6667 5.2031 3.0557
-13.9862 4.2029 3.0448
-14.2330 3.1839 3.0336
-14.4010 2.1505 3.0213
-14.4881 1.1091 3.0076
-14.5026 0.0664 2.9943
-14.4616 -0.9739 2.9848
-14.3467 -2.0079 2.9755
-14.1609 -3.0310 2.9667
-13.9094 -4.0396 2.9594
-13.5899 -5.0291 2.9530
-13.2192 -6.0022 2.9510
-12.7788 -6.9478 2.9490
-12.2708 -7.8610 2.9473
-11.6975 -8.7369 2.9456
-11.0614 -9.5706 2.9441
-10.3656 -10.3576 2.9428
-9.6104 -11.0900 2.9407
-8.7954 -11.7563 2.9363
-7.9309 -12.3575 2.9309
-7.0319 -12.9069 2.9286
-6.0962 -13.3936 2.9274
-5.1265 -13.8111 2.9263
-4.1278 -14.1568 2.9253
-3.1056 -14.4288 2.9246
-2.0654 -14.6253 2.9240
-1.0130 -14.7451 2.9236
0.0460 -14.7874 2.9234
1.1056 -14.7518 2.9233
2.1602 -14.6385 2.9235
3.2037 -14.4480 2.9238
4.2305 -14.1813 2.9244
5.2348 -13.8400 2.9251
6.2041 -13.4105 2.9226
7.1280 -12.8937 2.9163
8.0236 -12.3347 2.9155
8.8768 -11.7151 2.9155
9.6809 -11.0347 2.9155
10.4315 -10.2977 2.9155
11.1246 -9.5084 2.9155
11.7567 -8.6714 2.9155
12.3245 -7.7918 2.9155
12.1619 -6.5189 2.7647
12.5818 -5.6232 2.7670
12.9621 -4.7103 2.7753
13.3566 -3.7946 2.8007
13.6218 -2.8329 2.8132
13.8180 -1.8527 2.8259
11.0543 -0.6808 2.2506
11.4298 0.1174 2.3288
11.4275 0.9398 2.3422
11.8056 1.8308 2.4468
11.5034 2.6408 2.4236
11.5009 3.5257 2.4766
11.4982 4.4502 2.5449
11.5529 5.4545 2.6438
11.4925 6.4728 2.7363
11.8456 7.8420 2.9542
11.2690 8.6851 2.9656
10.6313 9.4850 2.9765
9.9356 10.2370 2.9867
9.1856 10.9367 2.9963
8.3852 11.5801 3.0052
7.5388 12.1635 3.0133
6.5688 12.5269 2.9834
5.6560 12.9753 2.9900
4.7242 13.3899 3.0034
3.9450 14.4067 3.1633
2.9002 14.6546 3.1670
1.8398 14.8240 3.1695
0.7698 14.9139 3.1708
-0.3036 14.9237 3.1709
-1.3742 14.8537 3.1699
-2.4358 14.7043 3.1677
-3.4825 14.4765 3.1644
-4.5082 14.1720 3.1599
-5.5073 13.7927 3.1544
-6.4741 13.3411 3.1477
-7.4035 12.8200 3.1401
-8.2916 12.2347 3.1320
-9.1350 11.5896 3.1238
-9.9278 10.8858 3.1148
-10.6659 10.1273 3.1051
-11.3539 9.3253 3.0970
-11.9836 8.4782 3.0889
-12.5500 7.5887 3.0804
-13.0502 6.6616 3.0714
-13.4777 5.7002 3.0611
-13.8336 4.7115 3.0503
-14.1174 3.7013 3.0393
-14.3277 2.6749 3.0281
-14.4532 1.6363 3.0145
-14.5042 0.5936 3.0009
-14.4916 -0.4482 2.9896
-14.4141 -1.4860 2.9802
-14.2629 -2.5150 2.9709
-14.0458 -3.5317 2.9631
-13.7564 -4.5302 2.9554
-13.4155 -5.5131 2.9520
-13.0101 -6.4732 2.9500
-12.5361 -7.4035 2.9481
-11.9955 -8.2988 2.9464
-11.3908 -9.1544 2.9449
-10.7248 -9.9656 2.9434
-9.9998 -10.7269 2.9419
-9.2155 -11.4288 2.9391
-8.3736 -12.0612 2.9336
-7.4907 -12.6353 2.9293
-6.5741 -13.1559 2.9280
-5.6209 -13.6087 2.9268
-4.6362 -13.9910 2.9258
-3.6253 -14.3006 2.9249
-2.5935 -14.5354 2.9242
-1.5465 -14.6942 2.9238
-0.4901 -14.7757 2.9234
0.5699 -14.7796 2.9233
1.6277 -14.7055 2.9234
2.6776 -14.5540 2.9236
3.7135 -14.3257 2.9241
4.7299 -14.0219 2.9247
